  30.797200  -17.405700  1367.30  -119.12 
  30.797200  -17.405700  1368.00  -118.78 
  30.796700  -17.405500  1365.30  -119.00 
  30.797000  -17.405500  1366.30  -118.90 
  30.796200  -17.405200  1363.50  -118.94 
  30.796700  -17.405200  1364.40  -118.86 
  30.796000  -17.405000  1361.90  -119.25 
  30.796200  -17.405000  1362.70  -119.09 
  30.795700  -17.404700  1360.00  -119.50 
  30.795700  -17.404700  1360.90  -119.23 
  30.795200  -17.404500  1358.10  -119.67 
  30.795200  -17.404500  1359.00  -119.39 
  30.794700  -17.404200  1353.60  -119.84 
  30.794700  -17.404200  1354.90  -119.28 
  30.795000  -17.404200  1357.40  -119.59 
  30.794500  -17.404000  1351.90  -119.96 
  30.791200  -17.403700  1358.60  -120.53 
  30.791500  -17.403700  1356.30  -120.58 
  30.791500  -17.403700  1358.10  -120.63 
  30.791700  -17.403700  1357.40  -120.57 
  30.792200  -17.403700  1353.40  -120.75 
  30.792200  -17.403700  1354.90  -120.26 
  30.792700  -17.403700  1350.20  -120.48 
  30.792700  -17.403700  1351.90  -120.55 
  30.794200  -17.403700  1348.20  -120.18 
  30.794200  -17.403700  1350.10  -120.00 
  30.790700  -17.403500  1356.00  -120.53 
  30.791000  -17.403500  1356.40  -120.65 
  30.791200  -17.403500  1358.30  -120.58 
  30.793200  -17.403500  1346.50  -120.30 
  30.793200  -17.403500  1348.40  -120.33 
  30.793700  -17.403500  1344.70  -120.56 
  30.793700  -17.403500  1346.20  -120.06 
  30.403700  -17.403200  1268.00  -108.65 
  30.790200  -17.403000  1361.00  -120.52 
  30.788700  -17.402700  1368.00  -120.73 
  30.787700  -17.402000  1376.00  -120.51 
  30.786500  -17.401200  1383.00  -120.79 
  30.785200  -17.400200  1388.00  -120.86 
  30.590000  -17.399700  1303.00  -104.48 
  30.782700  -17.399000  1388.00  -120.99 
  30.780500  -17.398000  1381.00  -121.32 
  30.767500  -17.396700  1410.00  -122.54 
  30.778500  -17.396200  1369.00  -121.69 
  30.775700  -17.395700  1368.00  -121.97 
  30.770200  -17.395200  1398.00  -122.13 
  30.773200  -17.394200  1386.00  -122.24 
  30.391500  -17.389200  1266.00   -93.82 
  30.391500  -17.389200  1266.00   -93.82 
  30.948200  -17.388200  1251.00  -113.23 
  30.948200  -17.388200  1251.00  -113.23 
  30.368200  -17.384700  1245.00   -89.63 
  30.599200  -17.366500  1289.00  -102.03 
  30.324200  -17.365700  1208.50   -90.54 
  30.198200  -17.357500  1156.00   -96.67 
  30.294000  -17.356200  1176.00   -98.06 
  30.288200  -17.355200  1204.00   -97.29 
  30.215700  -17.353000  1109.00  -101.39 
  30.421000  -17.351700  1227.00   -95.78 
  30.607200  -17.348700  1289.00  -100.11 
  30.911200  -17.325200  1226.00  -101.12 
  30.618700  -17.317700  1295.00   -99.04 
  30.444200  -17.306700  1202.00  -103.50 
  30.873700  -17.291700  1290.00  -115.79 
  30.627700  -17.284500  1306.00   -98.07 
  30.467700  -17.263500  1191.00  -108.75 
  30.467700  -17.263500  1191.00  -108.75 
  30.825700  -17.260200  1372.00  -115.13 
  30.816200  -17.260000  1427.00  -115.28 
  30.837200  -17.259500  1320.00  -114.34 
  30.638000  -17.258500  1335.00   -98.03 
  30.851000  -17.257500  1255.00  -112.24 
  30.811500  -17.249500  1423.00  -114.23 
  30.804200  -17.239200  1420.00  -113.20 
  30.650000  -17.235200  1322.00   -97.40 
  30.799700  -17.228700  1414.00  -112.65 
  30.513700  -17.223700  1167.00  -112.85 
  30.448700  -17.223200  1195.00  -110.81 
  30.795500  -17.223200  1445.00  -112.06 
  30.793200  -17.217700  1435.00  -111.65 
  30.790700  -17.212700  1432.00  -111.58 
  30.785700  -17.210000  1455.00  -111.41 
  30.661200  -17.209700  1333.00   -97.23 
  30.779500  -17.209500  1463.00  -111.41 
  30.774500  -17.207000  1460.00  -111.38 
  30.770200  -17.202700  1476.00  -111.71 
  30.766700  -17.198200  1497.00  -111.84 
  30.763700  -17.192700  1508.00  -111.89 
  30.761200  -17.188700  1518.00  -111.82 
  30.433000  -17.188500  1158.00  -109.83 
  30.668200  -17.188500  1344.00   -97.99 
  30.550200  -17.186700  1195.00  -113.35 
  30.759700  -17.185700  1516.20  -112.12 
  30.758700  -17.183000  1515.80  -111.56 
  30.755700  -17.181700  1528.20  -111.75 
  30.753000  -17.180700  1532.60  -111.34 
  30.750200  -17.179700  1534.60  -110.89 
  30.747700  -17.178200  1539.60  -110.63 
  30.745200  -17.176700  1547.10  -110.17 
  30.742500  -17.175200  1553.60  -109.92 
  30.739700  -17.174000  1562.60  -109.48 
  30.722000  -17.173200  1573.90  -103.52 
  30.737000  -17.172700  1571.40  -108.88 
  30.720000  -17.172000  1554.80  -101.82 
  30.734500  -17.171200  1583.60  -108.30 
  30.723500  -17.171000  1583.10  -104.09 
  30.731700  -17.170200  1592.30  -107.74 
  30.719700  -17.169200  1537.30  -101.42 
  30.726000  -17.169200  1586.50  -105.13 
  30.729000  -17.168700  1592.50  -106.42 
  30.675200  -17.168500  1377.00   -97.37 
  30.576500  -17.168200  1256.00  -113.49 
  30.716500  -17.166200  1508.30   -99.88 
  30.719000  -17.166200  1516.00  -100.87 
  30.713500  -17.164500  1495.50   -96.62 
  30.704700  -17.164000  1471.30   -88.86 
  30.710500  -17.164000  1489.20   -93.54 
  30.707500  -17.163700  1481.20   -90.80 
  30.701500  -17.163500  1469.40   -87.11 
  30.699200  -17.162200  1461.70   -86.16 
  30.696200  -17.161200  1455.90   -85.75 
  30.693500  -17.159500  1449.60   -85.91 
  30.442500  -17.158700  1157.00  -109.71 
  30.691000  -17.158200  1444.60   -87.13 
  30.688500  -17.156500  1439.60   -88.23 
  30.685700  -17.155500  1435.80   -90.62 
  30.683200  -17.154000  1426.40   -93.10 
  30.657700  -17.153000  1355.20  -108.07 
  30.654700  -17.152700  1349.40  -108.70 
  30.660700  -17.152700  1368.00  -107.34 
  30.663700  -17.152700  1377.40  -106.39 
  30.680500  -17.152700  1419.90   -96.41 
  30.651700  -17.152200  1349.40  -108.78 
  30.669700  -17.152200  1422.10  -103.85 
  30.666700  -17.152000  1402.70  -105.47 
  30.649000  -17.151700  1344.40  -108.64 
  30.672500  -17.151200  1418.90  -102.03 
  30.678200  -17.151000  1413.90   -98.81 
  30.646000  -17.150700  1336.00  -107.74 
  30.675200  -17.150200  1412.20  -100.50 
  30.676500  -17.150200  1411.00  -100.24 
  30.676500  -17.150200  1411.10  -100.22 
  30.643000  -17.150000  1338.40  -108.83 
  30.640200  -17.149500  1345.80  -110.15 
  30.638000  -17.147700  1338.20  -110.95 
  30.636200  -17.145200  1328.60  -111.52 
  30.598700  -17.144500  1297.00  -114.51 
  30.598700  -17.144500  1297.00  -114.51 
  30.634000  -17.143200  1321.90  -112.04 
  30.604700  -17.141500  1281.00  -114.51 
  30.611200  -17.141000  1295.00  -114.02 
  30.629700  -17.139200  1302.00  -112.95 
  30.596500  -17.138000  1287.00  -114.55 
  30.615700  -17.137700  1279.00  -113.51 
  30.592700  -17.135700  1288.00  -114.63 
  30.625200  -17.135200  1285.00  -113.30 
  30.620200  -17.133700  1278.00  -113.70 
  30.467200  -17.133200  1188.00  -110.21 
  30.585700  -17.131700  1284.00  -114.52 
  30.575200  -17.126700  1268.00  -113.72 
  30.565200  -17.123200  1259.00  -113.01 
  30.555200  -17.119200  1247.00  -113.07 
  30.530200  -17.116200  1248.00  -112.62 
  30.545200  -17.114700  1233.00  -112.10 
  30.520500  -17.110000  1251.00  -112.22 
  30.514500  -17.099000  1235.00  -112.21 
  30.506500  -17.093200  1226.00  -111.19 
  30.460200  -17.088700  1221.00  -111.85 
  30.460200  -17.088700  1221.00  -111.85 
  30.495200  -17.088200  1217.00  -112.91 
  30.478200  -17.086200  1219.00  -112.12 
  30.459000  -17.075000  1212.00  -111.43 
  30.452200  -17.054700  1179.00  -109.70 
  30.440200  -17.039200  1156.00  -104.65 
  28.612670  -20.143330  1340.54  -104.26 
  28.563670  -20.096330  1307.64  -130.79 
  28.544330  -20.035830  1247.92  -115.67 
  28.520670  -19.969500  1199.36  -111.78 
  28.503830  -19.902670  1186.40  -108.21 
  28.446330  -19.844330  1216.90  -110.84 
  28.481330  -19.782670  1173.85  -116.02 
  28.401670  -19.680830  1151.75  -108.08 
  28.392830  -19.637000  1210.66  -107.36 
  28.375830  -19.599170  1204.29  -101.60 
  28.363330  -19.571670  1195.08  -101.89 
  28.351500  -19.545170  1153.20  -119.63 
  28.342830  -19.520500  1130.31  -133.98 
  28.336830  -19.506670  1113.42  -139.21 
  28.335000  -19.502000  1118.30  -140.14 
  28.273330  -19.430330  1160.33  -139.98 
  28.228830  -19.396330  1145.91  -135.67 
  28.188830  -19.355670  1118.35  -143.85 
  28.141170  -19.323670  1104.15  -142.49 
  28.096500  -19.293830  1086.46  -141.32 
  28.063170  -19.255500  1052.46  -141.05 
  28.063000  -19.211000  1051.03  -136.59 
  28.036670  -19.171330  1059.72  -127.88 
  28.000000  -19.139170  1078.63  -117.69 
  27.969830  -19.113670  1034.43  -110.52 
  27.921170  -19.099000  1073.65  -108.76 
  27.891170  -19.077500  1049.56  -108.75 
  27.849830  -19.038830  1036.31  -105.22 
  27.819500  -19.011170  1022.18  -105.86 
  27.787330  -18.983830   996.10  -109.30 
  27.771330  -18.961670   985.18  -110.85 
  27.765670  -18.936500   957.20  -107.26 
  27.749500  -18.910170   992.14  -109.00 
  27.713670  -18.879830   977.89  -112.40 
  27.687170  -18.847670   999.01  -110.24 
  27.654000  -18.821830   990.82  -110.65 
  27.619500  -18.799330  1023.48  -110.33 
  27.586500  -18.775500  1043.96  -108.68 
  27.545670  -18.764330  1044.81  -110.76 
  27.508670  -18.755830  1043.92  -113.11 
  27.477330  -18.745500  1036.88  -117.40 
  27.442330  -18.732830  1037.75  -115.66 
  27.404330  -18.731330   964.91  -115.48 
  27.366830  -18.727330   965.69  -114.99 
  27.340000  -18.689500  1029.69  -114.73 
  27.302500  -18.661330  1032.84  -114.98 
  27.260500  -18.639500   998.44  -111.37 
  27.224670  -18.620500   943.29  -108.18 
  27.183830  -18.611330   924.21  -108.00 
  27.149330  -18.620670   987.19  -107.65 
  27.112330  -18.621830  1034.01  -109.03 
  27.077000  -18.604330  1046.42  -106.56 
  27.047500  -18.584000  1053.07  -102.75 
  27.020330  -18.563330  1079.53   -99.37 
  26.988000  -18.538830  1076.86   -97.58 
  26.969500  -18.513330  1019.92  -100.52 
  26.929000  -18.499500  1041.37  -101.82 
  26.904170  -18.463830  1022.68  -106.20 
  26.879330  -18.448170   940.56  -106.41 
  26.852830  -18.433500   923.22  -110.85 
  26.824000  -18.408500   867.49  -113.09 
  26.788830  -18.406830   839.98  -113.48 
  26.766000  -18.389330   821.56  -120.83 
  26.688500  -18.382500   738.40  -118.83 
  26.663330  -18.369830   709.95  -119.18 
  26.616670  -18.359670   699.06  -120.51 
  26.538170  -18.345500   758.08  -121.49 
  26.513500  -18.344170   761.11  -118.15 
  26.452830  -18.337000   719.19  -117.91 
  26.377170  -18.338670   738.25  -122.18 
  26.346000  -18.339170   746.75  -122.08 
  26.311830  -18.324330   800.88  -120.82 
  26.276170  -18.307670   873.43  -120.72 
  26.242000  -18.281170   880.32  -121.94 
  26.185330  -18.245170   806.41  -124.16 
  26.139670  -18.254330   828.65  -120.78 
  26.111670  -18.243000   863.38  -115.92 
  26.036170  -18.229170   856.58  -108.51 
  26.029830  -18.199670   898.64  -107.07 
  26.028170  -18.174500   960.50  -107.23 
  26.007170  -18.165000   999.17  -107.39 
  25.977500  -18.153670  1029.44  -106.31 
  25.958670  -18.147000  1033.00  -107.57 
  25.928330  -18.134500  1020.00  -110.03 
  25.894670  -18.124330  1026.00  -108.59 
  25.860830  -18.109830  1051.88  -108.75 
  25.849330  -18.095500  1060.56  -109.41 
  25.847000  -18.076830  1062.43  -109.52 
  25.843170  -18.069170  1082.80  -105.77 
  25.819830  -18.061330  1024.27  -113.82 
  25.812670  -18.014330   979.52  -113.87 
  25.815830  -17.974330   914.68  -115.10 
  25.852500  -17.923830   881.18  -119.84 
  25.832500  -17.937170   953.79  -117.80 
  25.832500  -17.937330   953.81  -117.78 
  25.826000  -17.926830   979.06  -116.90 
  25.787170  -17.929000   995.06  -111.17 
  25.755170  -17.927500  1010.06  -108.25 
  25.730670  -17.926670  1010.06  -101.76 
  25.677830  -17.925330  1041.00   -94.31 
  25.638500  -17.926000  1030.00   -93.48 
  25.565500  -17.929330  1037.00   -90.96 
  25.558330  -17.932170  1035.00   -89.23 
  25.538170  -17.927500  1048.06   -86.50 
  25.512330  -17.913330  1043.06   -86.71 
  25.505000  -17.877170   970.06   -88.52 
  25.485330  -17.859830   935.06   -91.65 
  25.457500  -17.853670   960.06   -91.92 
  25.429670  -17.858830   930.06   -91.75 
  25.400500  -17.862670   960.06   -90.77 
  25.373830  -17.861500   925.06   -89.02 
  25.334830  -17.850000   965.06   -88.95 
  25.301170  -17.827670   944.06   -87.72 
  25.266830  -17.814330   934.06   -91.07 
  25.264000  -17.855170   955.00   -88.71 
  25.299830  -17.907330  1044.20   -90.85 
  25.403500  -17.924170  1047.00   -90.97 
  25.477670  -17.928330   970.00   -86.32 
  29.548800  -16.897200  1282.00  -117.48 
  29.587800  -16.882500  1310.00  -121.02 
  29.617300  -16.849500  1384.10  -113.67 
  29.654700  -16.840000  1305.00  -111.68 
  29.690800  -16.819500  1250.20  -105.15 
  29.181000  -16.996800  1001.00  -113.94 
  29.234200  -16.983800  1045.00  -110.62 
  29.301300  -16.979000  1090.00  -110.01 
  29.351500  -16.970200  1150.00  -112.35 
  29.402200  -16.951500  1225.00  -117.83 
  29.382300  -16.926800  1168.00  -110.92 
  29.500700  -16.926800  1265.00  -118.61 
  28.871200  -17.198700   750.00  -112.52 
  28.872700  -17.152500   675.00  -113.15 
  28.918300  -17.133200   618.00  -111.40 
  28.951500  -17.119300   760.00  -110.32 
  28.992500  -17.106300   810.00  -112.11 
  28.863300  -17.277000   780.00  -115.01 
  28.879500  -17.236300   725.00  -114.57 
  28.908300  -17.375200   802.00  -116.61 
  28.889500  -17.336200   785.00  -114.76 
  28.871700  -17.315700   842.00  -114.18 
  28.920700  -17.472500   810.00  -120.35 
  28.900500  -17.443800   805.00  -121.55 
  28.896800  -17.408300   800.00  -117.81 
  28.569800  -17.563700   665.00  -118.54 
  28.599000  -17.543300   660.00  -121.06 
  28.630500  -17.567800   675.00  -121.68 
  28.660700  -17.597000   695.00  -119.16 
  28.990800  -17.593500   835.00  -115.20 
  28.969500  -17.554300   840.00  -114.68 
  28.948800  -17.518800   805.00  -113.83 
  28.547800  -17.662800   775.00  -125.02 
  28.504300  -17.629800   675.00  -110.70 
  28.531700  -17.624700   705.00  -118.63 
  28.548800  -17.600300   700.00  -118.54 
  28.689800  -17.609000   705.00  -121.71 
  28.730300  -17.605800   720.00  -117.09 
  28.734800  -17.649000   715.00  -117.62 
  28.750000  -17.693300   725.00  -116.06 
  28.598000  -17.782700   741.40  -121.61 
  28.573200  -17.745000   718.00  -124.85 
  28.555700  -17.710300   730.00  -124.87 
  28.760000  -17.730800   750.00  -114.80 
  28.789800  -17.748000   775.00  -118.28 
  28.806800  -17.778200   775.00  -119.86 
  28.855500  -17.786000   842.00  -122.47 
  28.897500  -17.786500   845.00  -126.30 
  28.946500  -17.795700   980.00  -130.99 
  28.976300  -17.799500   945.00  -135.19 
  28.996300  -17.766800   910.00  -135.47 
  28.672300  -17.886200   776.10  -120.42 
  28.645700  -17.852800   765.00  -122.85 
  28.609300  -17.828700   755.00  -123.75 
  28.703800  -17.996200   845.00  -125.16 
  28.712000  -17.957700   820.00  -121.15 
  28.690300  -17.922000   795.00  -119.59 
  28.735500  -17.953700   805.00  -121.39 
  29.032800  -17.087500   800.00  -114.82 
  29.085500  -17.072000   905.00  -115.55 
  29.119500  -17.057700   880.00  -114.26 
  29.141000  -17.017700   930.00  -115.69 
  29.020800  -17.665800   855.00  -122.92 
  29.000500  -17.629000   850.00  -119.99 
  29.006700  -17.720300   885.00  -130.36 
  28.772800  -18.085200   885.00  -131.41 
  28.764200  -18.053200   870.00  -130.86 
  28.729700  -18.019000   860.00  -124.62 
  28.904700  -18.195000  1195.00  -128.60 
  28.854700  -18.187000  1165.00  -130.28 
  28.816500  -18.178700  1160.00  -129.62 
  28.789500  -18.164200  1095.00  -134.65 
  28.777700  -18.128000  1010.00  -134.17 
  28.987200  -18.251700  1302.00  -126.86 
  28.959800  -18.230500  1297.00  -129.61 
  29.027300  -18.286200  1250.00  -121.06 
  29.087500  -18.381700  1308.00  -123.27 
  29.091800  -18.339800  1303.00  -133.70 
  29.073000  -18.300300  1240.00  -129.28 
  29.830300  -18.485500  1118.90  -111.44 
  29.786500  -18.495300  1100.00  -113.40 
  29.600000  -18.495800  1055.00  -120.39 
  29.556000  -18.462500   975.00  -114.64 
  29.521000  -18.448200  1002.00  -110.65 
  29.475800  -18.446000  1015.00  -109.67 
  29.431300  -18.448500  1020.00  -116.22 
  29.398500  -18.457000  1035.00  -124.33 
  29.379000  -18.494700  1040.00  -137.98 
  29.092800  -18.475500  1220.00  -117.08 
  29.731300  -18.501700  1075.00  -127.87 
  29.696500  -18.509000  1085.00  -120.60 
  29.645000  -18.507200  1085.00  -117.50 
  29.342300  -18.515000  1058.00  -142.14 
  29.301300  -18.541800  1095.00  -147.41 
  29.247700  -18.550000  1138.00  -144.48 
  29.208000  -18.530200  1178.00  -126.63 
  29.165700  -18.523300  1238.00  -123.33 
  29.115000  -18.518200  1186.00  -119.40 
  30.043700  -20.331100   932.50   -98.34 
  30.831800  -20.079200  1065.20  -116.22 
  30.798400  -20.133200  1102.10   -94.83 
  30.741900  -20.172200   970.00   -99.93 
  30.728400  -20.179700   959.10  -104.37 
  30.711900  -20.201600   951.40  -113.24 
  30.708200  -20.225500   881.20  -124.67 
  30.694300  -20.256500   862.40  -127.44 
  30.687700  -20.296100   830.60  -130.26 
  30.697800  -20.330100   833.90  -130.23 
  30.696200  -20.359700   820.00  -129.32 
  30.692300  -20.386600   800.10  -128.26 
  30.829400  -20.105500  1085.10  -101.69 
  30.910900  -19.019400  1472.20  -111.29 
  30.813000  -20.045300  1101.00  -125.99 
  30.779800  -20.062100  1085.20  -127.06 
  30.741400  -20.044400  1107.50  -125.03 
  30.713700  -20.040900  1118.80  -123.83 
  30.675000  -20.041700  1084.50  -124.84 
  30.633000  -20.041600  1067.20  -124.04 
  30.593100  -20.055500  1020.10  -120.62 
  30.560000  -20.063200  1049.80  -115.35 
  30.525200  -20.059500  1093.50  -103.11 
  30.488100  -20.047200  1019.20  -103.87 
  30.462400  -20.069500   965.50  -110.36 
  30.432900  -20.092100   948.70  -112.44 
  30.390000  -20.103200   955.30  -109.87 
  30.339000  -20.133100   924.20  -119.83 
  30.307600  -20.156700   897.70  -117.63 
  30.265200  -20.184800   866.60  -114.61 
  30.244600  -20.201700   875.10  -113.09 
  30.204500  -20.227700   875.30  -114.02 
  30.183800  -20.241500   874.80  -115.30 
  30.156600  -20.463200   925.70  -106.94 
  30.180300  -20.481400   901.80  -114.38 
  30.214000  -20.496000   876.20  -121.03 
  30.259100  -20.493100   879.10  -129.04 
  30.318600  -20.403300   786.00  -126.10 
  30.297400  -20.440400   842.50  -129.49 
  30.270900  -20.472900   886.40  -129.85 
  30.273400  -20.521300   840.10  -132.67 
  30.276300  -20.548000   820.60  -132.92 
  30.317300  -20.563100   787.00  -130.59 
  30.354200  -20.562300   760.00  -126.21 
  30.387600  -20.573200   745.70  -117.53 
  30.420500  -20.607500   750.60  -103.48 
  30.405500  -20.644800   748.60  -106.16 
  30.411700  -20.679200   740.10  -112.06 
  30.429700  -20.716500   720.30  -108.62 
  30.431400  -20.760700   715.50  -108.54 
  30.446700  -20.789400   709.00  -104.44 
  30.453800  -20.824700   715.50  -103.38 
  30.462800  -20.860100   722.30  -102.37 
  30.477500  -20.901800   709.00  -102.22 
  30.495200  -20.934600   697.20  -102.12 
  30.518100  -20.959500   656.00  -104.66 
  30.540500  -20.986400   648.50  -101.89 
  30.575700  -20.998900   659.70   -96.95 
  30.603400  -21.019700   643.00  -104.51 
  30.630500  -21.043600   612.10  -105.75 
  30.656500  -21.070000   596.80  -106.41 
  30.675600  -21.101300   605.40  -103.85 
  30.691100  -21.133700   600.80  -102.83 
  30.703100  -21.176200   586.90   -98.89 
  30.715800  -21.209500   573.20   -97.06 
  30.734200  -21.242900   552.60   -94.16 
  30.992300  -20.803200   581.20  -115.86 
  31.012400  -20.759400   621.50  -111.40 
  31.026100  -20.727200   660.50  -118.83 
  31.026100  -20.727200   660.50  -118.80 
  31.062200  -20.707900   643.10  -117.24 
  31.099600  -20.681800   618.60  -120.96 
  31.138300  -20.663300   567.40  -122.50 
  31.168300  -20.636500   643.80  -128.39 
  31.165100  -20.603000   656.30  -135.18 
  31.134100  -20.575200   663.30  -137.26 
  31.110000  -20.544200   726.50  -135.76 
  31.065500  -20.534700   748.00  -134.22 
  31.039500  -20.504600   782.60  -134.58 
  31.003800  -20.485200   807.90  -133.67 
  30.981700  -20.456000   842.20  -133.03 
  30.958800  -20.443600   844.90  -131.67 
  30.841900  -20.137800  1101.50   -97.18 
  30.851200  -20.181700  1110.30  -102.79 
  30.883500  -20.205100  1063.00  -101.44 
  30.899800  -20.241000  1077.80  -118.65 
  30.912900  -20.261500  1094.70  -123.97 
  30.932000  -20.300300  1182.30  -131.92 
  30.934800  -20.327700   989.40  -131.35 
  30.941300  -20.358900   941.40  -129.77 
  30.911400  -20.370300   922.50  -128.95 
  30.920700  -20.392500   960.30  -129.68 
  30.923300  -20.417900   923.90  -130.13 
  30.877400  -20.410100   853.10  -127.81 
  30.828700  -20.395000   891.20  -129.16 
  30.770500  -20.381200   875.60  -129.19 
  30.723500  -20.323000   845.10  -128.69 
  30.689000  -20.423000   800.10  -127.08 
  30.672500  -20.490500   801.60  -125.83 
  30.680800  -20.521400   781.00  -125.07 
  30.682100  -20.565700   778.20  -127.14 
  30.696000  -20.592200   753.50  -127.27 
  30.717100  -20.627500   747.10  -128.19 
  30.733300  -20.652600   716.20  -125.02 
  30.761300  -20.686000   725.80  -120.91 
  30.784300  -20.720000   712.30  -120.47 
  30.805100  -20.745600   718.30  -117.53 
  30.819500  -20.768400   691.50  -117.99 
  30.799000  -20.797000   664.40  -115.84 
  30.777500  -20.824600   614.90  -115.13 
  30.774200  -20.856200   619.20  -112.64 
  30.775200  -20.902700   579.90  -111.39 
  30.768500  -20.929400   580.30  -109.49 
  30.754800  -20.965200   584.20  -107.64 
  30.745900  -21.000600   578.00  -108.94 
  30.736700  -21.028100   578.00  -107.51 
  30.733300  -21.068100   574.90  -106.47 
  30.747000  -21.095300   574.10  -104.70 
  30.743200  -21.128400   574.20  -103.89 
  30.740400  -21.168300   565.90   -99.38 
  30.739800  -21.209900   557.50   -96.72 
  30.773900  -21.275300   533.50   -87.20 
  30.811300  -21.305600   539.00   -79.50 
  30.854900  -21.324700   524.30   -75.74 
  30.898000  -21.343300   506.30   -71.91 
  30.941600  -21.362100   503.90   -68.04 
  30.984700  -21.380700   491.30   -65.57 
  31.011900  -21.392600   484.40   -60.54 
  31.046500  -21.370200   504.30   -61.95 
  31.083600  -21.341500   479.40   -65.36 
  31.121500  -21.314800   460.60   -67.91 
  31.156600  -21.285400   451.70   -71.03 
  31.193400  -21.256900   447.90   -72.33 
  31.230500  -21.228400   430.90   -73.40 
  31.260700  -21.193000   416.50   -74.40 
  31.286800  -21.155700   402.70   -76.55 
  31.315400  -21.133900   396.10   -77.19 
  31.363700  -21.112700   415.90   -76.32 
  31.410900  -21.104700   385.00   -74.44 
  31.425600  -21.070900   390.00   -77.72 
  31.451100  -21.039900   412.20   -78.79 
  31.480200  -21.015300   433.70   -79.79 
  31.513600  -21.017800   423.50   -76.70 
  31.548600  -21.008200   433.80   -78.02 
  31.582600  -21.016200   425.30   -76.35 
  31.616200  -21.029900   417.00   -73.80 
  31.642100  -21.025300   405.60   -73.70 
  31.402000  -21.035200   405.60   -83.08 
  31.360900  -21.039200   410.70   -83.81 
  31.319800  -21.032600   423.70   -86.17 
  31.295700  -21.014500   444.90   -89.58 
  31.272100  -20.998500   452.90   -93.98 
  31.223900  -20.975200   480.40  -100.55 
  31.197200  -20.950900   474.70  -103.32 
  31.170200  -20.917900   497.20  -107.28 
  31.152300  -20.891500   501.50  -106.84 
  31.125400  -20.866200   515.50  -106.89 
  31.098600  -20.838500   542.50  -108.15 
  31.071800  -20.814900   584.20  -109.05 
  31.033400  -20.796700   582.60  -111.43 
  30.955100  -20.797000   662.10  -119.05 
  30.928900  -20.802000   622.10  -119.58 
  30.887700  -20.804100   618.60  -118.75 
  30.847000  -20.801200   619.40  -114.94 
  31.688300  -21.015800   388.70   -72.52 
  31.741000  -21.011600   357.00   -69.05 
  31.782600  -20.979400   387.10   -69.48 
  31.773300  -20.942700   405.40   -73.10 
  31.748600  -20.907300   441.20   -81.46 
  31.723000  -20.866500   431.70   -87.23 
  31.694400  -20.832800   445.80   -94.39 
  31.680800  -20.791600   453.10  -102.21 
  31.649800  -20.767400   454.00  -104.35 
  31.631200  -20.752400   452.90  -104.40 
  31.602300  -20.717800   476.50  -103.27 
  31.561600  -20.705700   501.30  -103.50 
  31.518600  -20.685500   501.40  -106.58 
  31.474500  -20.672900   506.00  -109.28 
  31.429700  -20.650800   566.90  -114.47 
  31.398800  -20.619800   706.60  -121.59 
  31.393700  -20.602200   697.00  -125.04 
  31.406000  -20.568400   742.60  -128.74 
  31.428800  -20.543300   716.70  -129.41 
  31.439500  -20.528500   713.30  -128.79 
  31.454800  -20.486200   782.70  -130.75 
  31.449900  -20.453200   744.30  -131.79 
  31.452700  -20.407600   757.10  -137.64 
  31.474100  -20.377900   740.20  -136.35 
  31.463400  -20.344900   775.80  -137.79 
  31.432100  -20.312100   800.40  -136.48 
  31.406600  -20.278400   841.00  -138.89 
  31.401300  -20.240400   878.00  -136.94 
  31.374800  -20.206700   911.60  -139.83 
  31.342800  -20.181100   985.50  -138.27 
  31.304000  -20.168100  1038.10  -138.18 
  31.282400  -20.126800  1138.60  -136.79 
  31.252200  -20.086800  1169.40  -131.22 
  30.957900  -19.019000  1460.20  -112.52 
  31.011500  -19.021900  1488.90  -113.68 
  31.067600  -19.019800  1488.10  -115.44 
  31.116700  -19.042800  1455.40  -114.29 
  31.157200  -19.070400  1428.00  -114.33 
  31.201900  -19.109700  1372.40  -113.70 
  31.255300  -19.137700  1339.00  -114.01 
  31.293100  -19.165600  1350.60  -115.52 
  31.315300  -19.224600  1333.70  -115.52 
  31.348500  -19.276800  1270.60  -119.90 
  31.382900  -19.310100  1239.60  -118.91 
  31.434200  -19.323200  1175.20  -117.05 
  31.475000  -19.334400  1152.70  -115.22 
  31.537600  -19.354800  1119.90  -114.59 
  31.585400  -19.337100  1095.30  -114.86 
  31.624100  -19.370800  1058.20  -115.13 
  31.678400  -19.374800  1045.20  -115.05 
  31.727200  -19.401400  1045.50  -113.93 
  31.751100  -19.445800  1018.10  -116.77 
  31.806300  -19.458400   994.80  -116.21 
  31.854800  -19.472300  1000.40  -115.49 
  31.898400  -19.500600  1006.60  -117.84 
  31.932600  -19.522000  1082.30  -118.93 
  31.960400  -19.559200   978.60  -118.92 
  31.961100  -19.603900   934.50  -118.78 
  31.976500  -19.652400   954.70  -117.78 
  32.023100  -19.679300   876.20  -120.17 
  32.064800  -19.722400   788.60  -119.26 
  32.118600  -19.743100   747.30  -115.21 
  32.154700  -19.786600   699.20  -114.54 
  32.189300  -19.822500   680.80  -114.78 
  32.229200  -19.865100   614.50  -115.29 
  32.262500  -19.906800   582.00  -118.58 
  32.285200  -19.946200   564.60  -118.12 
  32.309600  -19.950800   537.30  -117.30 
  32.231700  -19.953700   546.60  -117.77 
  32.166200  -19.945300   610.00  -119.23 
  32.110300  -19.944500   702.10  -121.91 
  32.047700  -19.951000   765.40  -122.95 
  31.996600  -19.956600   831.00  -123.41 
  31.950600  -19.975700   830.50  -124.54 
  31.897000  -19.983100   880.30  -127.65 
  31.832500  -19.986700   900.40  -130.66 
  31.781400  -19.974700   897.70  -129.70 
  31.705800  -19.933500  1028.50  -129.94 
  31.650300  -19.943400  1054.20  -129.96 
  31.595900  -19.990400  1002.10  -134.60 
  31.558600  -19.996900  1090.40  -134.65 
  31.488700  -20.002700  1158.20  -136.63 
  31.428800  -19.972800  1183.10  -125.48 
  31.364100  -19.997000  1113.40  -125.89 
  31.301300  -20.019900  1114.10  -125.49 
  31.230700  -20.045900  1140.00  -117.54 
  31.161700  -20.064200  1105.40  -110.86 
  31.097800  -20.093300  1085.80  -107.94 
  31.009300  -20.095900  1074.30  -101.00 
  30.953900  -20.089000  1082.10   -96.82 
  30.890500  -20.079200  1057.10  -108.22 
  30.774200  -19.989700  1128.50  -130.17 
  30.760800  -19.920900  1139.70  -127.58 
  30.745500  -19.855700  1170.40  -127.97 
  30.732600  -19.790500  1211.80  -127.76 
  30.745400  -19.727000  1253.00  -126.36 
  30.763500  -19.662200  1309.10  -125.42 
  30.758200  -19.597500  1342.80  -125.67 
  30.731900  -19.537100  1412.90  -125.31 
  30.674800  -19.499800  1423.90  -125.20 
  30.624500  -19.454400  1444.50  -123.66 
  30.585300  -19.397900  1476.20  -122.51 
  30.551000  -19.338300  1449.70  -118.48 
  30.543900  -19.274100  1382.60  -110.78 
  30.593500  -19.226000  1384.70  -111.06 
  30.633900  -19.164200  1341.50  -111.07 
  30.683900  -19.121500  1361.10  -110.92 
  30.751000  -19.081700  1389.40  -110.32 
  30.828800  -19.047400  1413.90  -108.93 
  30.888500  -19.024600  1454.00  -110.90 
  30.907300  -18.958400  1430.10  -109.82 
  30.904500  -18.886100  1402.50  -109.05 
  30.902900  -18.817900  1386.60  -108.60 
  30.899900  -18.757800  1386.40  -109.91 
  30.905000  -18.687300  1416.90  -112.61 
  30.896300  -18.624500  1360.60  -114.21 
  30.874900  -18.559600  1373.00  -118.81 
  30.888200  -18.473500  1354.90  -115.66 
  30.883400  -18.405200  1330.30   -98.97 
  30.858800  -18.330400  1310.10   -98.63 
  30.867900  -18.239800  1307.90  -113.56 
  30.868600  -18.183300  1316.40  -116.71 
  30.889700  -18.119400  1342.00  -117.72 
  30.923000  -18.059700  1375.60  -117.18 
  30.959900  -18.007200  1410.10  -117.79 
  30.976100  -17.958600  1402.20  -117.01 
  31.051600  -17.781400  1470.70  -111.16 
  30.736200  -21.300100   523.10   -85.90 
  30.735000  -21.316800   515.00   -81.51 
  30.729000  -21.364600   502.10   -76.20 
  30.720900  -21.388900   497.90   -71.87 
  30.695400  -21.413800   475.10   -67.71 
  30.677200  -21.438400   501.10   -63.43 
  30.657500  -21.464700   513.50   -58.55 
  30.639700  -21.490200   503.30   -54.94 
  30.622400  -21.517500   508.60   -48.92 
  30.607900  -21.547600   518.60   -45.55 
  30.593300  -21.581700   538.60   -41.06 
  30.571000  -21.621100   525.80   -38.62 
  30.554200  -21.641600   525.30   -36.88 
  30.523200  -21.677300   506.10   -39.00 
  30.506400  -21.699600   494.70   -39.86 
  30.492500  -21.716500   505.50   -38.23 
  30.476600  -21.744300   518.30   -36.11 
  30.453300  -21.777800   535.40   -35.01 
  30.420300  -21.812000   544.30   -37.30 
  30.402600  -21.831600   556.90   -40.13 
  30.343700  -21.876300   588.20   -42.94 
  30.321700  -21.889900   601.80   -44.64 
  30.292200  -21.913300   634.50   -42.09 
  30.264800  -21.933200   661.70   -47.69 
  30.243600  -21.950400   652.50   -50.69 
  30.222000  -21.969500   635.80   -49.54 
  30.184000  -22.007700   591.20   -52.82 
  30.165100  -22.034000   574.80   -56.49 
  30.143300  -22.058400   560.10   -59.86 
  30.108100  -22.097500   544.60   -67.47 
  30.082800  -22.125900   525.40   -73.70 
  30.058600  -22.146700   534.60   -74.42 
  30.009600  -22.172900   521.40   -78.24 
  30.041600  -22.152700   527.10   -74.96 
  29.991700  -22.212600   456.20   -79.30 
  30.142100  -22.090000   547.50   -63.31 
  30.177400  -22.093300   569.40   -60.90 
  30.222300  -22.099900   570.10   -54.13 
  30.256100  -22.104600   577.60   -52.04 
  30.288800  -22.120900   606.90   -48.97 
  30.312400  -22.151600   561.70   -46.87 
  30.348900  -22.197700   514.40   -48.88 
  30.389600  -22.220500   488.50   -50.03 
  30.423600  -22.191700   497.30   -47.18 
  30.458100  -22.185000   514.60   -44.17 
  30.444400  -22.168600   513.30   -45.06 
  30.463000  -22.132300   531.00   -40.69 
  30.487500  -22.085700   534.50   -32.30 
  30.507900  -22.058500   533.30   -27.05 
  30.550400  -22.064600   538.20   -22.55 
  30.601100  -22.072500   527.40   -17.28 
  30.650900  -22.080000   519.80   -12.57 
  30.662400  -22.054500   519.50    -1.38 
  30.641200  -22.020300   508.40    -5.65 
  30.690900  -22.029100   480.30    -4.27 
  30.724800  -21.998000   452.10   -16.33 
  30.753800  -21.972200   422.10   -21.29 
  30.780800  -21.944100   427.00   -19.42 
  30.809800  -21.919300   450.10   -14.80 
  30.848000  -21.889500   446.80   -11.42 
  30.883700  -21.858800   455.60    -7.86 
  30.920000  -21.828600   481.60    -6.13 
  30.918100  -21.790200   484.70   -10.52 
  30.953300  -21.760300   510.40    -9.05 
  30.992000  -21.727900   498.80    -8.43 
  31.033000  -21.692700   487.20    -0.45 
  31.014200  -21.660400   458.30   -16.23 
  30.983400  -21.650500   474.00   -19.95 
  30.941800  -21.619800   510.10   -26.06 
  30.902600  -21.590800   490.50   -29.99 
  30.865600  -21.581800   479.40   -33.03 
  30.831300  -21.552900   468.50   -36.75 
  30.799500  -21.516800   461.40   -47.02 
  30.771900  -21.490200   460.40   -52.92 
  30.730500  -21.481600   482.30   -56.41 
  30.698000  -21.465300   490.10   -58.59 
  30.606800  -21.642400   516.20   -33.10 
  30.644300  -21.656000   509.00   -29.47 
  30.671000  -21.677100   519.00   -28.17 
  30.714900  -21.648400   535.30   -27.26 
  30.700900  -21.709600   493.90   -27.29 
  30.728800  -21.743900   489.70   -25.03 
  30.736700  -21.794500   473.80   -20.71 
  30.742000  -21.830300   470.00   -19.42 
  30.758300  -21.866600   454.50   -17.48 
  30.788300  -21.900500   448.30   -16.70 
  30.848100  -21.946400   420.80   -11.63 
  30.891000  -21.959600   429.80    -6.46 
  30.935500  -21.962000   426.60    -2.21 
  30.979200  -21.984200   422.90    -1.39 
  31.024600  -21.993800   421.90     2.96 
  31.052600  -21.962000   540.70    17.25 
  31.094100  -21.933600   610.20    15.86 
  31.112600  -21.923000   546.50    13.33 
  31.134500  -21.916500   560.40     9.52 
  31.163900  -21.888800   447.60     3.99 
  31.186700  -21.849300   500.90     8.59 
  31.209800  -21.817100   537.20    11.45 
  31.223500  -21.801400   518.50    11.33 
  31.256100  -21.784600   449.40    12.16 
  31.273400  -21.758100   408.00     7.29 
  31.305900  -21.741300   378.80    -0.36 
  31.312400  -21.725600   379.40    -1.57 
  31.317300  -21.675500   403.70   -21.86 
  31.343300  -21.647300   410.30   -29.04 
  31.373200  -21.608300   432.90   -37.84 
  31.413100  -21.582000   445.70   -39.15 
  31.452400  -21.558500   471.80   -39.83 
  31.483500  -21.537100   471.70   -41.13 
  31.511400  -21.505700   468.40   -41.85 
  31.508800  -21.473600   442.90   -42.77 
  31.559900  -21.478100   453.90   -41.68 
  31.591500  -21.454000   444.80   -40.86 
  31.607200  -21.424800   419.20   -39.64 
  31.651200  -21.418400   395.50   -38.47 
  31.684800  -21.385200   368.40   -36.65 
  31.732700  -21.357100   350.80   -35.27 
  31.781500  -21.347100   333.60   -33.28 
  31.750900  -21.317000   344.30   -38.18 
  31.719400  -21.285200   360.40   -41.04 
  31.671900  -21.254600   334.30   -43.20 
  31.651500  -21.225900   329.80   -47.58 
  31.632800  -21.210400   332.00   -49.51 
  31.613000  -21.226100   335.40   -48.62 
  31.587100  -21.261500   368.70   -45.93 
  31.542300  -21.263000   355.10   -48.52 
  31.506800  -21.288900   369.40   -46.42 
  31.466000  -21.322800   388.40   -45.94 
  31.464300  -21.299800   386.10   -46.55 
  31.433700  -21.281900   404.30   -51.37 
  31.424700  -21.262800   434.50   -52.45 
  31.375600  -21.257400   427.40   -58.19 
  31.332300  -21.251100   424.00   -66.00 
  31.288100  -21.243900   409.80   -70.39 
  31.260100  -21.211100   411.20   -73.66 
  31.049900  -21.405200   493.50   -56.17 
  31.098400  -21.422900   510.50   -46.96 
  31.142700  -21.431600   502.50   -44.78 
  31.187800  -21.447400   484.50   -42.16 
  31.230100  -21.461900   492.30   -42.33 
  31.277200  -21.478600   477.30   -44.23 
  31.320900  -21.494000   462.40   -44.94 
  31.363200  -21.509300   465.20   -44.47 
  31.408900  -21.524600   454.70   -42.40 
  31.456100  -21.532800   462.50   -41.45 
  31.491800  -21.579200   501.80   -39.34 
  31.494700  -21.623400   504.80   -36.24 
  31.512600  -21.665600   490.10   -30.91 
  31.530100  -21.708200   475.10   -20.94 
  31.545200  -21.743100   454.60    -9.25 
  31.560300  -21.779800   452.20    -3.68 
  31.573100  -21.809800   433.90    -3.15 
  31.590500  -21.852400   425.00   -10.49 
  31.535500  -21.604400   531.00   -38.01 
  31.574900  -21.579000   525.00   -37.34 
  31.612700  -21.554500   478.30   -34.36 
  31.654900  -21.539000   473.10   -32.04 
  31.698000  -21.528500   491.10   -28.41 
  31.738600  -21.518900   481.20   -25.15 
  31.766400  -21.481100   425.80   -23.18 
  31.791700  -21.459200   393.50   -16.07 
  31.818500  -21.428700   371.90    -3.60 
  31.838100  -21.390400   339.20    -7.36 
  31.864900  -21.347700   319.30   -11.57 
  31.880000  -21.324700   306.60   -12.24 
  31.896600  -21.305000   294.70   -11.18 
  31.887800  -21.259300   299.90   -25.02 
  31.898200  -21.221900   334.00   -30.88 
  31.887400  -21.182900   312.30   -37.95 
  31.869300  -21.147600   327.50   -44.45 
  31.851300  -21.109500   324.50   -49.58 
  31.836300  -21.065100   358.50   -55.10 
  31.840000  -21.015500   383.70   -56.43 
  31.811400  -20.982800   380.20   -64.78 
  31.875100  -21.336900   316.50   -10.52 
  31.868000  -21.382000   341.80     1.71 
  31.872600  -21.421800   344.70    13.92 
  31.889700  -21.453100   317.40    19.75 
  31.921500  -21.460100   302.10    26.57 
  31.961100  -21.455400   259.10    25.89 
  31.997400  -21.434800   236.40    23.19 
  32.043200  -21.435500   210.50    11.12 
  32.052300  -21.444600   210.50     8.40 
  32.039100  -21.480200   225.20    13.43 
  32.080000  -21.489500   284.70     3.61 
  32.115800  -21.487900   353.80    -2.65 
  32.161200  -21.469600   358.70    -9.38 
  32.210100  -21.449000   335.70   -12.91 
  32.217000  -21.412900   260.50   -10.51 
  32.198000  -21.367700   190.30    -8.01 
  32.227500  -21.343000   193.80    -8.97 
  32.247600  -21.374700   237.20   -12.04 
  32.261900  -21.327300   206.40   -11.80 
  32.303700  -21.339200   173.80   -15.94 
  32.326900  -21.344300   161.20   -15.82 
  32.356300  -21.340300   172.90   -14.51 
  32.385800  -21.317000   162.20   -11.56 
  32.371600  -21.263600   169.30    -4.79 
  32.334500  -21.255300   225.60   -12.32 
  32.305700  -21.235800   293.10   -20.54 
  32.265300  -21.223000   341.10   -16.83 
  32.251000  -21.187200   406.20   -19.69 
  32.238700  -21.151000   444.00   -26.41 
  32.207600  -21.112900   356.70   -22.31 
  32.192800  -21.076700   371.80   -32.17 
  32.180400  -21.052200   367.30   -42.87 
  32.165700  -21.018300   379.90   -45.14 
  32.146600  -20.999200   378.60   -48.39 
  32.115900  -20.987800   404.20   -52.17 
  32.071600  -20.982600   426.20   -51.49 
  32.019200  -20.979600   409.20   -54.95 
  31.987100  -20.963100   416.00   -58.13 
  31.933300  -20.962300   428.40   -56.48 
  31.886600  -20.962900   391.10   -59.23 
  31.844700  -20.975800   410.60   -61.22 
  32.155100  -20.941900   376.70   -57.94 
  32.170900  -20.865600   386.80   -68.40 
  32.213500  -20.812000   408.30   -74.61 
  32.193100  -20.850800   407.40   -70.67 
  32.220900  -20.768700   406.30   -76.25 
  32.244100  -20.738100   433.20   -79.62 
  32.285000  -20.719700   435.70   -78.12 
  32.315300  -20.704100   439.30   -76.17 
  32.341400  -20.670300   454.90   -74.26 
  32.357400  -20.622900   465.00   -77.00 
  32.370100  -20.587200   456.50   -79.33 
  32.384600  -20.557500   431.60   -81.28 
  32.390000  -20.525900   439.60   -82.29 
  32.387700  -20.493800   461.60   -97.24 
  32.387800  -20.457600   455.70   -95.16 
  32.390400  -20.421000   470.50   -98.35 
  32.389600  -20.389000   469.50  -104.63 
  32.399800  -20.353300   484.10  -102.73 
  32.401400  -20.310400   483.50  -103.02 
  32.390500  -20.266100   485.60  -106.04 
  32.388300  -20.227200   494.10  -109.61 
  32.387900  -20.191500   498.00  -110.34 
  32.390900  -20.159400   489.80  -111.57 
  32.402500  -20.132800   499.90  -111.48 
  32.450900  -20.114900   564.80  -108.51 
  32.407400  -19.972400   626.40  -111.88 
  32.431100  -20.024500   746.70  -111.40 
  32.434800  -20.067400   649.00  -112.47 
  32.374000  -19.964200   539.40  -113.55 
  32.111500  -19.987000   680.50  -121.26 
  32.107000  -20.030800   658.40  -120.22 
  32.102900  -20.073300   657.80  -119.40 
  32.106900  -20.125200   580.00  -121.50 
  32.108600  -20.162300   589.20  -123.16 
  32.107900  -20.203400   555.80  -119.66 
  32.099500  -20.248100   541.60  -115.63 
  32.098300  -20.292400   539.80  -110.81 
  32.112500  -20.332700   500.80  -106.58 
  32.139600  -20.369400   482.50  -110.67 
  32.178100  -20.409300   445.00  -108.13 
  32.188000  -20.457300   456.00  -107.10 
  32.151400  -20.486000   495.50   -97.71 
  32.121400  -20.521100   496.80   -95.75 
  32.108300  -20.563000   501.90   -93.28 
  32.060500  -20.605300   525.60   -92.03 
  32.046300  -20.568100   535.30   -94.30 
  32.036500  -20.532800   546.30   -96.27 
  32.013600  -20.511500   544.10  -100.83 
  31.995200  -20.473900   565.90  -103.88 
  31.970600  -20.424500   532.00  -100.05 
  31.930200  -20.433300   553.90  -104.37 
  31.890800  -20.454700   582.60  -106.51 
  31.850000  -20.465300   592.20  -111.20 
  31.808600  -20.479000   620.10  -112.30 
  31.752900  -20.490800   664.80  -108.77 
  31.720500  -20.471600   719.30  -112.97 
  31.711700  -20.435000   730.10  -115.64 
  31.691400  -20.403200   684.70  -120.51 
  31.702300  -20.359400   656.10  -124.67 
  31.659700  -20.347800   703.80  -129.53 
  31.616200  -20.345700   704.80  -132.41 
  31.568400  -20.339000   755.00  -136.50 
  31.523000  -20.329100   780.10  -136.97 
  31.487500  -20.327000   772.60  -137.58 
  31.713500  -20.509100   698.20  -110.89 
  31.716500  -20.551100   568.20  -111.78 
  31.730100  -20.587300   578.10  -101.54 
  31.713100  -20.613000   521.70  -102.97 
  31.720500  -20.650100   510.90   -99.54 
  31.688100  -20.674700   512.70  -101.93 
  31.653300  -20.698300   497.30  -102.59 
  31.640100  -20.727600   465.20  -103.04 
  31.784700  -20.901200   420.80   -79.05 
  31.803200  -20.866600   440.20   -81.41 
  31.833700  -20.838300   462.90   -83.37 
  31.849400  -20.801000   480.30   -82.55 
  31.868000  -20.757700   484.60   -85.71 
  31.904600  -20.732600   464.30   -84.72 
  31.949100  -20.690900   488.40   -88.60 
  32.009800  -20.656000   512.20   -89.85 
  31.704000  -20.322900   656.40  -128.81 
  31.687600  -20.284300   709.30  -133.78 
  31.664400  -20.249800   761.20  -135.71 
  31.644100  -20.217200   772.20  -133.50 
  31.616500  -20.197500   811.60  -133.00 
  31.609300  -20.155000   821.80  -133.61 
  31.609600  -20.112500   896.70  -137.33 
  31.610900  -20.076400   913.20  -136.39 
  31.601800  -20.030200   968.20  -135.57 
  31.008400  -20.052600  1079.70  -114.69 
  31.024600  -20.014800  1111.10  -123.37 
  31.026200  -19.970100  1128.40  -127.24 
  31.041100  -19.923300  1142.00  -129.50 
  31.038300  -19.879500  1206.10  -128.65 
  31.036400  -19.840100  1222.60  -126.86 
  31.046300  -19.810000  1236.20  -126.01 
  31.062900  -19.773600  1246.20  -125.56 
  31.094000  -19.731500  1289.20  -123.32 
  31.102800  -19.709000  1325.40  -121.92 
  31.127600  -19.669000  1347.50  -122.01 
  31.134600  -19.643400  1353.80  -122.43 
  31.085500  -19.645500  1338.00  -122.43 
  31.036200  -19.656300  1334.10  -122.47 
  30.991500  -19.650400  1361.90  -122.00 
  30.946300  -19.638600  1338.40  -121.31 
  30.901100  -19.638100  1335.70  -121.51 
  30.850100  -19.635200  1350.00  -122.78 
  30.807200  -19.632900  1366.30  -124.11 
  31.176600  -19.634800  1370.20  -122.08 
  31.218400  -19.609900  1297.50  -122.14 
  31.240700  -19.572200  1184.60  -119.59 
  31.258800  -19.525800  1217.30  -117.15 
  31.283500  -19.492600  1267.90  -116.51 
  31.320900  -19.464900  1237.10  -115.48 
  31.362000  -19.452200  1194.80  -115.08 
  31.404100  -19.432300  1183.10  -113.67 
  31.442900  -19.405500  1105.90  -113.36 
  31.487500  -19.377900  1077.60  -113.98 
  31.612400  -19.297500  1042.20  -114.47 
  31.658300  -19.264900   961.10  -112.82 
  31.668600  -19.225200   976.90  -108.84 
  31.702700  -19.184800  1008.60   -97.52 
  31.735300  -19.158400   953.00  -111.43 
  31.756100  -19.102500   908.00  -117.11 
  31.795900  -19.054900   866.70  -118.22 
  31.833600  -19.025700   904.40  -119.39 
  31.878000  -18.998000   904.20  -120.66 
  31.922800  -18.981100   853.00  -122.35 
  31.951600  -18.926600   866.80  -119.92 
  32.005400  -18.893400   949.60  -120.97 
  32.038900  -18.855700  1037.20  -121.21 
  32.065700  -18.818700  1111.10  -120.78 
  32.107600  -18.785000  1152.50  -119.94 
  32.156600  -18.753200  1153.50  -119.41 
  32.172000  -18.709400  1230.70  -117.72 
  32.167300  -18.695400  1254.00  -117.66 
  32.665100  -18.971300  1109.20  -114.61 
  32.635600  -19.033600  1068.00  -123.29 
  32.618400  -19.064300  1092.30  -126.11 
  32.616900  -19.095000  1145.70  -125.62 
  32.616900  -19.107200  1092.10  -125.62 
  32.611500  -19.151900  1016.10  -124.05 
  32.596200  -19.199300   965.90  -126.74 
  32.586600  -19.246300   941.20  -123.13 
  32.579300  -19.292800   857.40  -122.27 
  32.576400  -19.324500   813.80  -123.23 
  32.578600  -19.370100   893.70  -124.17 
  32.576700  -19.402200   799.70  -123.99 
  32.561300  -19.444200   837.20  -125.31 
  32.536400  -19.478500   720.40  -123.27 
  32.530600  -19.504700   668.10  -122.19 
  32.520100  -19.541700   618.80  -119.48 
  32.507100  -19.575500   635.70  -117.47 
  32.497400  -19.615300   627.20  -113.94 
  32.478300  -19.637400   599.30  -111.86 
  32.461900  -19.680700   574.80  -107.39 
  32.441300  -19.708700   567.50  -103.81 
  32.419200  -19.746500   532.90  -109.16 
  32.422500  -19.767800   537.40  -108.63 
  32.418000  -19.815700   545.80  -110.43 
  32.403500  -19.861300   517.30  -112.71 
  32.378500  -19.910000   507.50  -114.54 
  32.371200  -19.944700   517.10  -115.03 
  32.545400  -19.511900   698.60  -120.23 
  32.588300  -19.521100   801.40  -121.73 
  32.642100  -19.529800   937.70  -117.42 
  32.688300  -19.526200  1022.30  -116.73 
  32.737400  -19.533100  1096.00  -112.44 
  32.791200  -19.541800  1179.20  -109.96 
  32.805500  -19.590100  1357.70   -99.39 
  32.806900  -19.630300  1568.10   -94.64 
  32.824000  -19.672400  1776.40   -95.86 
  32.852100  -19.708100  1604.70   -91.43 
  32.830600  -19.723400  1504.20   -89.00 
  32.796200  -19.739700  1336.60   -88.93 
  32.899800  -19.713100  1206.40   -90.77 
  32.944600  -19.736600  1280.40   -89.27 
  32.920300  -19.783200  1397.10   -85.36 
  32.872100  -19.803500  1519.10   -87.34 
  32.826200  -19.835100  1260.10   -88.61 
  32.778400  -19.857100  1256.80   -89.90 
  32.739200  -19.881000  1652.80   -90.56 
  32.722400  -19.932500  1599.40   -87.50 
  32.688800  -19.994800  1235.20   -91.82 
  32.672500  -20.033700  1098.50   -92.06 
  32.649900  -20.081100   983.80   -95.24 
  32.600700  -20.093200   856.30   -98.78 
  32.553300  -20.109800   767.70  -100.00 
  32.503500  -20.122700   760.70  -103.21 
  32.618700  -20.141500  1177.80   -87.84 
  32.620500  -20.192200  1112.60   -80.61 
  32.623700  -20.238700   999.70   -79.40 
  32.609800  -20.280700   987.80   -79.75 
  32.606800  -20.322700  1000.80   -74.89 
  32.608100  -20.362900   887.80   -71.81 
  32.591700  -20.409000   797.40   -67.63 
  32.590600  -20.451900   646.20   -63.83 
  32.550400  -20.435100   870.20   -67.83 
  32.509300  -20.409700  1048.90   -75.40 
  32.480500  -20.419500  1038.30   -78.70 
  32.449200  -20.457400  1079.70   -80.11 
  32.453400  -20.497600   983.20   -70.29 
  32.454700  -20.522500   866.80   -67.90 
  32.488700  -20.545200   603.90   -61.99 
  32.475100  -20.584900   467.30   -60.79 
  32.444000  -20.562200   467.00   -67.38 
  32.451000  -20.625900   604.20   -59.21 
  32.451800  -20.669800   604.40   -57.71 
  32.471800  -20.708200   630.30   -59.49 
  32.477500  -20.743500   575.20   -56.94 
  32.461900  -20.793600   494.00   -56.10 
  32.476700  -20.841500   435.50   -59.39 
  32.501100  -20.864200   358.60   -53.96 
  32.508600  -20.919800   433.50   -49.55 
  32.465700  -20.937300   457.30   -50.26 
  32.403000  -21.002100   345.30   -47.51 
  30.394700  -20.145700   960.30  -121.99 
  30.422300  -20.185800   938.80  -124.51 
  30.447900  -20.228700   938.90  -126.70 
  30.478500  -20.257100   938.30  -129.41 
